# .PCD v0.7 - Point Cloud Data file format
VERSION 0.7
FIELDS x y z
SIZE 4 4 4
TYPE F F F
COUNT 1 1 1
WIDTH 106
HEIGHT 1
VIEWPOINT 0 0 0 1 0 0 0
POINTS 106
DATA ascii
0.0069781528 0.10738505 0.48864523
-0.0039653825 0.11711276 0.48900014
0.0065914015 0.1142875 0.48795843
0.016613936 0.1175145 0.48770383
0.020362776 0.11810409 0.48900002
-0.0049677603 0.12202535 0.48900014
0.0056564314 0.12479869 0.48797309
0.014078123 0.1260456 0.48808953
0.020607276 0.1246711 0.48870006
0.0086023789 0.13195077 0.48899996
0.014836199 0.13195172 0.4886843
0.02014843 0.13160783 0.48899999
-0.011213209 0.098819211 0.49833339
-0.0043712058 0.097529106 0.49835724
0.004695998 0.09656892 0.49658123
0.014276912 0.096698746 0.49652183
0.021479132 0.098900102 0.49818185
-0.020779192 0.10892671 0.49900001
-0.014423556 0.10538214 0.49650007
-0.0051066754 0.10536574 0.49326551
0.0028541523 0.10435433 0.49209654
0.018615767 0.10432296 0.49221429
0.023917735 0.10550477 0.4948929
0.030741272 0.10821089 0.49900004
-0.021529084 0.11560122 0.49833331
-0.016012508 0.11547932 0.49415839
-0.0059415265 0.11511505 0.49050573
0.00085913332 0.11813083 0.49000001
0.025798539 0.1149403 0.4934904
0.031358678 0.1155564 0.49778575
-0.021631032 0.12380946 0.49860597
-0.015113642 0.12493326 0.49385005
-0.0060832812 0.12639907 0.49055839
0.0014208744 0.1275813 0.48999992
0.015065516 0.12784167 0.49100003
0.02578152 0.12490958 0.49240008
0.032994162 0.12478229 0.49833331
-0.020560464 0.131237 0.49900001
-0.014583484 0.13422109 0.49609667
-0.0050069122 0.13469909 0.49219829
0.0044998107 0.13553038 0.49107793
0.015044829 0.13669012 0.4910571
0.02497514 0.13514134 0.49416345
0.031975895 0.13294055 0.49790624
-0.011629772 0.14121373 0.49870005
-0.0041623809 0.1440593 0.49714839
0.0051741754 0.14470086 0.49520916
0.014987631 0.14461665 0.49495131
0.023856305 0.14409779 0.49780282
0.0060184072 0.15178698 0.49896535
0.01407815 0.15060435 0.49899995
0.020997919 0.15004763 0.49900001
-0.011155583 0.089690886 0.509
-0.0040466939 0.089239478 0.50669998
0.0055140904 0.088677965 0.50654054
0.013682174 0.089041203 0.50773907
0.02008005 0.089690886 0.509
-0.021741772 0.097535014 0.50783336
-0.014606188 0.095338427 0.50422812
-0.0052472074 0.092999145 0.50259352
0.0050130221 0.091900297 0.50234485
0.015527413 0.092706464 0.50293994
0.024813555 0.095263273 0.50535589
0.030577695 0.099266283 0.50550002
-0.023703832 0.10497779 0.50468528
-0.018582281 0.10241383 0.50155556
0.028093124 0.10255805 0.50196773
0.032535754 0.10570623 0.50351357
-0.030789411 0.11869541 0.509
-0.025783727 0.11525065 0.50326043
0.034488592 0.11413734 0.50197363
-0.030728919 0.12217081 0.50799996
-0.026170479 0.12496936 0.50360256
0.035902902 0.12615141 0.50126928
0.041052546 0.12583497 0.509
-0.021935955 0.13265085 0.50094742
-0.018428057 0.13778131 0.50126666
0.033945855 0.1358525 0.5010466
-0.020807683 0.1412266 0.505
-0.01470494 0.14458297 0.50262189
-0.0084215971 0.14727305 0.50146157
0.027765507 0.14698951 0.50085306
0.031699825 0.14284538 0.50219226
-0.012835641 0.15057252 0.50491673
-0.0092786402 0.15066744 0.50400001
0.0024132442 0.15123266 0.50075001
0.015514318 0.15259084 0.50058824
0.023851054 0.15161698 0.50157142
-0.02031675 0.089845181 0.51500005
-0.016068505 0.089052089 0.51366681
-0.0028375648 0.086236112 0.51302129
0.0045322906 0.085046828 0.51465201
0.015058734 0.086551614 0.51366675
0.022565745 0.087996565 0.51572722
-0.023943167 0.09557274 0.51185441
-0.016932987 0.091378801 0.51134622
0.026904209 0.09155003 0.51571435
0.031282227 0.095235758 0.51565003
-0.030014437 0.10482654 0.51100004
-0.028035488 0.10408413 0.51050007
0.038189791 0.10821968 0.51010007
-0.032463625 0.1193277 0.51075006
0.038447548 0.11444544 0.51129037
0.0413316 0.11597148 0.51265526
-0.0317441 0.120717 0.51000005
0.04237514 0.1237708 0.51327592
