# .PCD v0.7 - Point Cloud Data file format
VERSION 0.7
FIELDS x y z
SIZE 4 4 4
TYPE F F F
COUNT 1 1 1
WIDTH 156
HEIGHT 1
VIEWPOINT 0 0 0 1 0 0 0
POINTS 156
DATA ascii
0.019119808 0.13888124 0.71900004
0.023665778 0.13872841 0.71899992
0.019119807 0.14203286 0.71900004
0.024398759 0.14491181 0.71887761
0.036432691 0.14543661 0.71899992
0.040971015 0.14497437 0.71900004
0.026683688 0.15421911 0.71899992
0.0066227787 0.13749884 0.72680008
0.014346694 0.13818137 0.72105014
0.0063161277 0.14562254 0.72695857
0.014824352 0.14532118 0.72083944
0.027899038 0.14530224 0.72000015
0.034808367 0.14583796 0.71999979
0.044882514 0.14577429 0.72151202
0.053946473 0.14612141 0.7269001
0.0064203669 0.15473233 0.72634095
0.015120442 0.15483318 0.7212624
0.024908124 0.15546943 0.71999997
0.035356749 0.15468308 0.7201786
0.045139004 0.15487255 0.72324067
0.051921118 0.15431906 0.72726083
0.0062945411 0.1644848 0.72634035
0.015071905 0.16454951 0.72129053
0.025289517 0.16500722 0.72114295
0.035243463 0.16448437 0.7223115
0.044828318 0.16503063 0.72615695
0.050783549 0.16310909 0.7280001
0.0080118943 0.17403083 0.7273913
0.015246437 0.17474356 0.72480345
0.025378639 0.17447612 0.72369617
0.034975208 0.17486271 0.72530603
0.042873569 0.1743127 0.72763169
0.0089286296 0.18495585 0.72750008
0.01529938 0.18487217 0.72717214
0.025495404 0.18483968 0.72704709
0.035013814 0.18489997 0.72760046
0.040686101 0.18300767 0.7280001
0.0089349858 0.19082579 0.72800004
0.016377788 0.19186026 0.72788882
0.025711086 0.19309835 0.72744733
0.032548878 0.19146401 0.7280001
-0.0032712275 0.13587607 0.73587495
0.0017503523 0.13638754 0.73086661
-0.0038081682 0.14509091 0.73506141
0.001564655 0.14389324 0.73022217
0.05897205 0.14806914 0.73116666
0.062294338 0.14761125 0.73527277
-0.0043154857 0.15528016 0.73437238
0.0014079266 0.15585323 0.7299999
0.056808788 0.1553348 0.73217851
0.061820224 0.15524457 0.73736846
-0.0047411672 0.16486901 0.73428071
0.0013599291 0.1654314 0.7299999
0.049277432 0.16959116 0.73000002
0.055223819 0.16489564 0.73318177
0.060573284 0.16145717 0.73766679
-0.011013564 0.17168202 0.73900002
-0.0049097883 0.17478026 0.73519641
0.0034139601 0.1755359 0.73047221
0.047863953 0.17596792 0.73166668
0.054017086 0.17441291 0.73638892
-0.0050253216 0.1852192 0.73624194
0.0037307509 0.18474674 0.73095661
0.045677695 0.1853556 0.73291999
0.052287154 0.18410546 0.73815
-0.011013564 0.19111772 0.73900002
-0.0045001623 0.19485056 0.73681647
0.0049929586 0.19509485 0.73283321
0.014882592 0.19688144 0.73139465
0.024576198 0.19830228 0.73056251
0.03532562 0.19585423 0.73138636
0.044498455 0.19486772 0.73552084
-0.0031938783 0.20391674 0.73858637
0.0051563797 0.20489635 0.73612493
0.015430355 0.2051042 0.73341084
0.025044376 0.2048533 0.73251057
0.034713384 0.20485093 0.73420382
0.043287639 0.20286909 0.73607695
0.0073501286 0.21392141 0.7383216
0.015055289 0.21494538 0.73670602
0.024686866 0.21499832 0.73603684
0.035005555 0.21444894 0.73805887
0.040796559 0.21434557 0.73866671
0.024070365 0.22141746 0.73900002
0.033688545 0.22091912 0.73900002
-0.011559143 0.13783626 0.74633336
-0.0082168719 0.13543522 0.74257153
-0.012776225 0.14557521 0.74492013
-0.0090213381 0.1444144 0.74162495
0.066252045 0.14879429 0.74333334
-0.012719979 0.15459833 0.74318516
-0.0093121724 0.15375805 0.74108338
0.065961525 0.15523089 0.74227279
-0.013720564 0.16573967 0.74299991
-0.0097441496 0.16630016 0.74100012
0.064724579 0.16549599 0.74647373
0.070258699 0.16875219 0.74900001
-0.020300969 0.1768149 0.74700004
-0.015024513 0.17512919 0.74476933
-0.0097441496 0.17864275 0.741
0.058173332 0.1765774 0.74141669
0.064309411 0.17268112 0.74622571
0.073785745 0.17380622 0.74814987
-0.014223834 0.1848769 0.74420929
-0.0097441496 0.18189079 0.74100006
0.056083381 0.18449491 0.74168754
0.060862146 0.18193245 0.74650002
0.092619538 0.187207 0.74811113
-0.014301659 0.19511886 0.74427283
-0.0092569422 0.19699422 0.74100012
0.048720751 0.19683182 0.74100006
0.052034307 0.19272178 0.74109101
0.091708384 0.19151513 0.74900001
-0.020355323 0.20946284 0.74900001
-0.014783898 0.2048929 0.74538302
-0.0072823791 0.2063327 0.74117231
0.042224649 0.20852481 0.74100006
-0.0051764143 0.21506931 0.7425456
0.0030163284 0.21604787 0.74117845
0.034862403 0.21891856 0.741
0.041678924 0.21337847 0.74283338
0.066854529 0.21503466 0.7459231
0.033330757 0.22422221 0.74109071
-0.015467556 0.13894361 0.75400001
-0.016276851 0.14209321 0.75387502
0.06848783 0.16586131 0.75260007
0.074810542 0.16830646 0.75462502
0.082868323 0.1690401 0.75380003
0.076594763 0.172332 0.75081819
0.085292414 0.17493679 0.7529273
0.090884835 0.17558774 0.75272727
-0.020491207 0.1890479 0.75400001
-0.018670954 0.18736559 0.75166672
0.086563498 0.18494873 0.75272745
0.090930566 0.18471214 0.75053334
-0.019118346 0.19052421 0.75200003
0.085416265 0.19534375 0.75436175
0.090137549 0.19310819 0.75050002
0.046993718 0.20981702 0.75500005
0.067463502 0.20818815 0.75871426
0.075117409 0.20548661 0.75541198
0.083162785 0.20261738 0.75473076
0.046911981 0.21459921 0.75418419
0.054913849 0.21545441 0.75600004
0.064297557 0.21309949 0.75508881
0.07163243 0.21094039 0.75240004
0.048274815 0.22021253 0.75433332
0.051558517 0.22011521 0.75400001
0.07520476 0.16510846 0.76379305
0.080015995 0.16608362 0.76700002
0.082725778 0.19280443 0.76100004
0.056000836 0.20857404 0.76571429
0.064748846 0.20769371 0.76142865
0.048925452 0.21044427 0.76450002
0.054693542 0.21115685 0.76271993
0.060710043 0.21015015 0.76100004
